1.400312 0.894289 -0.589564
1.501408 0.070805 -0.505055
1.466463 0.054081 -0.627613
1.464587 -0.060398 -0.515496
1.479010 0.637505 -0.650776
1.350507 -0.221463 -0.574860
1.411105 -0.084590 -0.617002
1.577425 0.158989 -0.442661
1.693068 0.019270 -0.328584
1.667499 0.238201 -0.398700
1.992434 1.552259 -0.306996
2.155821 1.639038 -0.315585
1.962032 1.675683 -0.260599
2.108268 1.148066 -0.374911
2.276227 1.243662 -0.397293
2.202117 1.457229 -0.366618
2.066107 1.382476 -0.348266
2.354076 0.844978 -0.296592
2.333999 0.989447 -0.353521
2.131968 0.877199 -0.346640
2.268024 0.475298 -0.135442
2.435493 0.667241 -0.151350
2.384930 0.700071 -0.189480
2.239950 0.539608 -0.184423
1.979267 0.462774 -0.316115
1.830755 0.352335 -0.350260
1.856347 0.218248 -0.291193
1.993636 0.392493 -0.272206
1.828473 1.262843 -0.354225
1.591864 1.173972 -0.378900
1.663945 0.936059 -0.394532
1.848756 1.031154 -0.383091
1.731329 1.802119 -0.130095
1.485713 1.736419 -0.128464
1.502887 1.628498 -0.226004
1.748189 1.694389 -0.227759
1.882697 1.913341 -0.055482
2.054533 1.984173 -0.078639
2.051982 1.998129 0.000000
1.892992 1.924172 0.000000
1.807898 0.467178 -0.413558
1.642098 0.401025 -0.492121
1.510401 0.881594 -0.471603
2.070711 1.851341 -0.243187
2.055989 1.947275 -0.138161
2.460671 1.330128 -0.413283
2.562036 0.816398 -0.142062
2.363643 0.765457 -0.238961
2.415279 0.651363 0.000000
2.566417 0.827801 0.000000
2.039711 0.272756 -0.196872
2.220302 0.595560 -0.235804
1.949998 0.540295 -0.356762
2.194634 0.648119 -0.277442
2.178126 0.697596 -0.300072
1.918477 0.727283 -0.382564
1.769866 1.586874 -0.259567
1.915145 1.763650 -0.225406
0.573183 -0.525971 -0.874958
0.507330 -0.543374 -0.841116
0.567277 -0.777018 -0.818481
0.519877 -0.759538 -0.748047
0.539648 -0.920320 -0.730336
1.073408 -0.527855 -0.746398
1.107595 -0.397308 -0.776826
1.051271 -0.508935 -0.816099
0.814073 -0.496779 -0.920274
0.956395 -0.487165 -0.898099
0.992213 -0.744134 -0.770737
0.965089 -0.873556 -0.740833
0.983320 -0.859960 -0.657957
1.022937 -0.718718 -0.686768
0.909256 -0.881032 -0.469449
0.998456 -0.792591 -0.501725
0.552555 -0.646914 -0.833602
0.666182 -0.496962 -0.899102
0.632402 -0.630950 -0.874322
0.788274 -0.635600 -0.892630
1.075369 -0.529992 -0.629504
1.045694 -0.609717 -0.720996
1.058548 -0.590544 -0.600495
0.501493 -0.660709 -0.785084
0.911975 -0.604753 -0.883744
0.917735 -0.789396 -0.818811
1.013753 -0.629143 -0.808707
1.034182 -0.682893 -0.552291
0.978164 -0.995503 -0.631833
0.931270 -1.003255 -0.500019
0.738569 -0.950730 -0.508696
0.897084 -1.535491 -0.561158
0.806237 -1.561627 -0.515875
0.877643 -1.316715 -0.530588
0.664329 -1.254639 -0.528203
0.690526 -1.378248 -0.533376
0.865762 -1.412204 -0.739099
0.798278 -1.436387 -0.741983
0.785149 -1.567249 -0.718958
0.833353 -1.555958 -0.716666
0.892878 -1.011726 -0.764045
0.814326 -1.279679 -0.764732
0.875161 -1.260055 -0.766968
0.798722 -1.009827 -0.784065
0.720813 -1.050080 -0.769128
0.723027 -1.276845 -0.744053
0.846306 -1.757637 -0.681889
0.807776 -1.759843 -0.691933
0.954020 -1.008532 -0.698659
0.947509 -1.235742 -0.697855
0.884437 -1.551049 -0.685369
0.632072 -1.400599 -0.603371
0.588258 -1.257810 -0.602403
0.517587 -0.871856 -0.538309
0.534485 -1.057296 -0.612471
0.610387 -1.063914 -0.755136
0.586465 -0.922986 -0.776865
0.561157 -1.049352 -0.715715
0.715658 -1.404498 -0.730986
0.668457 -1.410465 -0.711889
0.762391 -1.785045 -0.724708
0.736501 -1.567502 -0.703439
0.691590 -1.589042 -0.683072
0.926245 -1.365509 -0.684145
0.902178 -1.550045 -0.636231
0.956272 -1.345601 -0.621440
-3.190764 -1.430082 -0.727962
-3.238701 -1.255198 -0.713888
-3.208138 -1.468758 -0.663209
-3.247724 -1.257174 -0.647011
-3.152541 -1.447340 -0.633916
-3.073169 -1.452848 -0.628566
-3.076754 -1.621466 -0.655893
-3.184537 -1.064373 -0.533925
-3.086528 -1.301188 -0.582703
-2.984995 -1.316830 -0.587083
-3.002805 -1.451546 -0.635771
-2.923440 -1.315658 -0.619083
-2.878085 -1.305302 -0.657494
-2.915941 -1.434372 -0.677393
-2.829904 -1.122581 -0.769565
-2.900858 -1.107507 -0.829964
-2.929238 -1.279955 -0.814636
-2.869276 -1.271001 -0.752848
-2.898223 -1.403342 -0.753953
-3.143380 -1.253988 -0.770078
-3.051399 -1.275037 -0.820664
-3.166720 -1.051819 -0.747324
-3.108366 -1.429646 -0.767435
-3.028703 -1.409822 -0.802441
-3.022322 -1.280269 -0.824824
-2.944918 -1.395291 -0.792859
-3.070672 -1.069054 -0.833273
-2.982483 -1.094017 -0.848746
-2.652860 -0.843476 -0.756840
0.815904 -1.744439 -0.542332
0.828305 -1.924226 -0.513208
0.735589 -1.765634 -0.564436
0.895835 -1.867535 -0.538585
0.936027 -1.992576 -0.550640
0.861251 -2.063032 -0.558120
0.739741 -2.049436 -0.536737
0.734555 -1.979385 -0.745123
0.821258 -1.906256 -0.763671
0.859787 -2.014269 -0.761658
0.922637 -1.995601 -0.738601
0.869914 -1.882135 -0.727785
0.714708 -2.063967 -0.618878
0.789193 -2.094752 -0.639189
0.724344 -2.051511 -0.749994
0.786114 -2.030623 -0.736773
0.789163 -1.923468 -0.753784
-1.326805 -1.062489 0.000000
-1.000768 -1.089360 0.000000
-0.995765 -1.081126 -0.297211
-1.339449 -1.060229 -0.285447
-0.666615 -1.019103 -0.426601
-1.010503 -1.050800 -0.431887
-0.680810 -1.047820 -0.293624
-1.648663 -0.937065 -0.550715
-1.534047 -0.931833 -0.526501
-1.429167 -1.009995 -0.524825
-1.443813 -1.020375 -0.362341
-1.115420 -1.018513 -0.627411
-1.217143 -1.031612 -0.588676
-0.918430 -1.005399 -0.630738
-0.654616 -0.957195 -0.612972
-1.324682 -0.848171 -0.688768
-1.339123 -1.023255 -0.588721
-1.430339 -0.971634 -0.557064
-1.514231 -0.872400 -0.612174
1.785845 -0.193306 -0.202684
1.698169 -0.206646 -0.262427
1.738499 -0.252109 -0.200492
1.594454 -0.376843 -0.299654
1.481891 -0.299834 -0.407887
1.450148 -0.376873 -0.426786
1.672930 -0.385424 -0.218112
1.433365 -0.132433 -0.512822
1.569842 -0.098751 -0.423287
1.635128 -0.153034 -0.330290
1.612370 -0.041736 -0.399825
0.876532 -0.864609 0.000000
1.065534 -0.886770 0.000000
1.123995 -0.877922 -0.330253
0.974403 -0.875778 -0.425765
1.479010 -0.835080 0.000000
1.566656 -0.760534 0.000000
1.489864 -0.828623 -0.277580
1.128721 -0.807390 -0.406950
1.147771 -0.762035 -0.434600
1.410844 -0.610452 -0.398500
1.358259 -0.686753 -0.409927
1.518069 -0.506553 -0.361308
1.450891 -0.512995 -0.416715
1.331334 -0.489517 -0.541263
1.233517 -0.518893 -0.583203
1.208867 -0.578395 -0.563151
1.328783 -0.551616 -0.519388
1.310162 -0.640610 -0.480909
1.287588 -0.737117 -0.413535
1.336122 -0.395349 -0.566411
1.425927 -0.252408 -0.487969
1.113163 -0.424410 -0.660921
1.249480 -0.410819 -0.616696
-3.184216 1.729885 0.094427
-3.209133 1.769648 0.109008
-1.343173 -1.037518 0.382038
-1.339449 -1.060229 0.285447
-1.443813 -1.020375 0.362341
0.691590 -1.589042 0.683072
0.721717 -1.789985 0.706091
0.673942 -1.595009 0.646706
2.334160 1.976566 0.328119
2.284263 2.026318 0.247456
2.370315 2.091757 0.282625
2.515348 1.761115 0.360084
2.379085 1.687556 0.364872
2.410062 1.846906 0.370407
2.550055 0.851205 0.229799
2.714438 0.895959 0.223067
2.744503 0.872525 0.127654
2.562036 0.816398 0.142062
2.577624 1.108724 0.382494
2.635211 0.988891 0.310897
2.501384 1.132463 0.380640
2.528339 1.673899 0.404013
2.583514 1.684102 0.439501
2.579615 1.878511 0.920259
2.586035 1.767488 0.938344
2.563912 1.934528 0.992071
2.591442 1.829625 0.707164
2.584602 1.730559 0.702453
2.567444 1.736526 0.835325
2.574920 1.825749 0.812736
2.568999 2.104518 1.074124
2.555211 2.047865 1.072355
2.533043 2.002671 1.111405
3.173016 1.932897 0.408056
3.186352 1.907581 0.438803
3.144751 1.940442 0.413598
3.229148 1.875524 0.400773
3.214886 1.862471 0.408632
2.996562 1.903529 0.463058
3.027853 1.895692 0.470556
3.038117 1.777791 0.476181
3.003387 1.762739 0.462698
3.243955 1.153152 0.351256
3.229118 1.226940 0.386176
3.427335 1.196247 0.295087
3.820650 1.149583 0.259397
3.814009 1.105186 0.235547
3.750515 1.107897 0.261800
2.682458 1.850124 0.411608
2.647444 1.793761 0.409319
2.741355 1.917148 0.596596
2.684940 1.910706 0.602838
2.586800 1.932974 0.612542
2.740949 1.946884 0.614772
2.691902 1.954054 0.612942
2.801164 1.886930 0.431864
2.800850 1.775217 0.442659
2.758330 1.769732 0.456336
2.576789 2.094698 1.047269
2.566111 1.960634 0.898145
2.561384 1.916336 0.803667
2.587873 2.013909 0.865230
2.583507 1.982005 0.755706
2.622151 2.101362 0.899692
2.631718 2.084388 0.795976
2.586333 2.048371 0.932254
2.690884 2.000496 0.657755
2.620841 1.993671 0.656790
2.674239 1.961446 0.471041
2.620772 2.135434 0.959823
2.636812 2.141332 0.875104
2.620864 2.170294 0.956460
2.657800 2.155319 0.874238
2.644518 2.201233 0.841499
2.701715 2.133894 0.800013
2.680037 2.036544 0.520168
2.761309 2.027099 0.642682
2.752700 2.096421 0.706166
2.704702 2.149490 0.671933
2.696797 2.067482 0.405055
2.645139 2.078283 0.515323
2.710600 1.976896 0.414135
2.583943 2.128861 1.036920
2.578060 2.082450 0.992224
2.599233 2.102611 0.983561
2.767813 2.013863 0.362561
2.731979 1.954008 0.395784
2.831291 2.117050 0.339921
2.387036 1.982464 0.462346
2.427696 1.967658 0.528181
2.482885 1.865068 0.560443
2.456382 1.858343 0.490091
2.486777 1.962258 0.691911
2.461376 1.959025 0.586052
2.360640 1.976429 0.399135
2.443919 1.844478 0.420754
2.497777 1.862004 0.821576
2.548600 1.897539 1.044618
2.488515 1.949634 0.925399
2.516957 2.045705 0.902633
2.514138 2.092714 1.024940
2.515210 2.017302 0.680320
2.505789 2.026724 0.777569
2.485023 1.976520 0.767803
2.488393 2.011902 0.623688
2.462380 2.025376 0.544466
2.547834 2.097770 0.785804
2.541568 2.194446 1.057862
2.544050 2.148816 0.949826
2.588623 2.165714 0.836436
2.618252 2.180781 0.772483
2.549795 2.096537 0.701449
2.634483 2.136468 0.678491
2.530078 2.070301 0.647274
2.678597 2.105866 0.583820
2.601331 2.100397 0.596689
2.503736 2.062917 0.570060
2.581362 2.081025 0.541844
2.631910 2.082059 0.479457
2.555494 2.086946 0.456150
2.632607 2.100236 0.449726
2.414988 2.039524 0.471610
2.477784 2.075012 0.476563
2.395868 2.052989 0.392548
2.529611 2.183446 0.361698
2.556743 2.123944 0.403274
2.503023 2.164074 0.306698
2.488899 2.143224 0.308387
2.440296 2.134369 0.287054
2.469557 2.192906 0.239951
2.517884 2.258414 0.262726
2.511802 2.255044 0.227717
2.546770 2.297442 0.231634
2.534207 2.305370 0.167116
2.491702 2.265691 0.191028
2.488018 2.272394 0.000756
2.496857 2.174047 0.263469
2.612913 2.320107 0.104056
2.625215 2.319319 0.167879
2.806618 2.259065 0.206178
2.911889 2.166380 0.196245
2.798767 2.247751 0.235079
2.955880 2.150746 0.107329
2.815994 2.269812 0.099775
2.729605 2.321961 0.198309
2.721186 2.300023 0.263420
2.630286 2.328066 0.258598
2.723845 2.317243 0.149305
2.712753 2.319119 0.000571
2.817970 2.268847 0.000462
2.731711 2.313183 0.107482
3.213553 1.980366 0.172181
3.107463 2.069252 0.217379
2.639378 1.608153 0.455070
2.659233 1.393897 0.497587
2.562250 1.572672 0.449783
2.702044 1.714734 0.467554
2.708632 1.625480 0.490194
2.653404 1.691861 0.447300
2.799617 1.512389 0.489385
2.869514 1.407087 0.493984
2.813412 1.301878 0.495929
2.721952 1.458041 0.506694
2.750494 1.202459 0.483022
2.603859 1.370358 0.470312
2.681829 1.161563 0.421925
2.724932 1.064608 0.368840
2.697655 1.034221 0.343156
2.849552 1.120827 0.443887
2.904482 1.216753 0.492140
2.982452 0.901441 0.144234
3.014915 0.926220 0.255377
3.038799 1.147361 0.431578
3.040040 1.064431 0.376166
3.420433 1.133006 0.294115
3.406721 1.082113 0.277380
3.251745 1.064709 0.310662
3.353232 0.972994 0.167254
3.232948 0.956896 0.215069
3.239015 1.032023 0.264477
3.207532 0.946802 0.109874
3.340463 0.967588 0.110948
3.438020 0.991375 0.139177
3.386798 1.042570 0.231693
3.579523 0.985219 0.079594
3.595210 0.978468 -0.000611
3.425251 0.985996 0.083146
3.508852 0.987965 0.105956
3.627321 0.997467 0.136051
3.697647 0.989212 0.124348
3.671128 0.975352 0.054684
3.775211 0.986462 0.098147
3.846280 1.010112 0.055386
3.808900 1.041102 0.157105
3.887636 1.047627 0.080707
3.533019 1.193482 0.269541
3.526132 1.137105 0.267905
3.568362 1.079342 0.253409
3.521682 1.014204 0.159970
3.519430 1.086895 0.258471
3.603644 1.057109 0.242244
3.645413 1.086825 0.261401
3.680304 1.101493 0.267996
3.596083 1.109337 0.272212
3.679914 1.138368 0.285483
3.693748 1.174577 0.296436
3.602862 1.187270 0.278966
3.764097 1.173183 0.284069
3.680358 1.235389 0.268906
3.779439 1.378263 0.222194
3.835801 1.363571 0.217995
3.757670 1.318400 0.255744
3.827896 1.275014 0.247436
3.877273 1.210387 0.233769
3.848861 1.162214 0.244697
3.750362 1.228220 0.271224
3.913267 1.149651 0.191150
3.892500 1.099728 0.181363
4.000000 1.279618 0.082217
3.948970 1.280851 0.165159
3.956561 1.355413 0.137064
3.914775 1.397428 0.132031
3.885024 1.340668 0.200289
3.858391 1.420339 0.149569
3.985653 1.351361 0.096008
3.936377 1.394739 0.104803
3.561613 1.304513 0.252539
3.666915 1.282245 0.243003
3.540311 1.235474 0.265649
3.731213 1.404276 0.197499
3.701936 1.345493 0.244903
3.596964 1.366413 0.240445
3.640059 1.439182 0.192009
3.761737 1.484728 0.084845
3.669282 1.483993 0.146232
3.698811 1.520309 0.087150
3.435125 1.243080 0.269678
3.462938 1.348994 0.274214
3.491563 1.410480 0.254800
3.521284 1.516517 0.188980
3.529005 1.576663 0.155077
2.821586 1.698625 0.450547
2.835450 1.628904 0.457611
2.779104 1.609425 0.472320
2.765438 1.692489 0.457043
3.052855 1.380071 0.437667
3.031453 1.276171 0.454146
2.960897 1.320637 0.476475
2.989676 1.437842 0.451675
3.356740 1.283371 0.320219
3.406430 1.386566 0.297259
3.481460 1.711402 0.091618
3.558573 1.626981 0.094643
3.403083 1.717522 0.152667
3.017657 1.486689 0.447601
3.222308 1.487356 0.388824
3.414083 1.440929 0.278047
2.899426 1.969933 0.419189
3.035880 2.097165 0.283408
2.877833 1.859584 0.443492
2.899005 1.703428 0.430817
2.926373 1.494954 0.458817
2.898445 1.564683 0.451426
2.940874 1.591968 0.442568
3.401582 1.589670 0.214323
3.337476 1.650122 0.256040
3.355453 1.824263 0.091914
3.290750 1.901422 0.160268
3.003839 1.690337 0.441721
3.130251 1.626055 0.436736
3.081051 1.464437 0.437091
3.045762 1.656120 0.452930
3.314695 1.580294 0.332653
3.250665 1.668774 0.371938
3.280034 1.705756 0.319716
3.316349 1.763895 0.265887
3.309816 1.832927 0.251855
3.352435 1.738288 0.219873
3.282071 1.908852 0.236941
3.232388 1.981974 0.263911
3.301198 1.782593 0.312777
3.258938 1.946287 0.331162
3.187938 2.006762 0.372993
3.154157 2.036919 0.319966
3.144973 2.017019 0.406198
3.088236 1.978037 0.436918
3.039412 2.005375 0.425937
3.080967 1.958535 0.452768
3.045134 1.898381 0.485744
3.180232 1.987926 0.395697
3.137834 1.989994 0.415852
3.136770 1.669793 0.453719
3.094663 1.713163 0.462681
3.172634 1.624017 0.416855
3.229264 1.684799 0.390953
3.258670 1.735806 0.337653
3.293676 1.792168 0.339943
3.207548 1.701903 0.423990
3.186498 1.667058 0.426871
3.165012 1.711769 0.450315
3.244223 1.772689 0.354813
3.250849 1.851280 0.368427
3.237337 1.949006 0.358664
3.208612 1.909044 0.382923
3.052334 1.777124 0.469647
3.073445 1.889488 0.466199
3.115115 1.884341 0.488724
3.222469 1.719659 0.387424
3.229118 1.748736 0.398900
3.122545 1.727151 0.461976
3.129470 1.756220 0.473458
3.193116 1.745948 0.440734
3.178930 1.760617 0.445914
3.129462 1.869258 0.476382
-2.933168 1.844110 0.039145
-2.951988 1.769273 0.166503
-3.066757 1.838695 0.100368
-3.074969 1.872138 0.057944
-3.399039 1.462698 0.000057
-3.431034 1.119502 0.000053
-3.441184 1.118452 0.044193
-3.410031 1.463181 0.047646
-3.468882 1.115603 0.076496
-3.440020 1.464514 0.082473
-3.506699 1.111712 0.088310
-3.480962 1.466329 0.095209
-3.359000 1.673125 0.102110
-3.521904 1.468145 0.082445
-3.398762 1.691854 0.088420
-3.234051 1.809411 0.094393
-3.427871 1.705565 0.051046
-3.252297 1.838511 0.054494
-3.572192 1.104971 0.044148
-3.425527 1.222252 0.242689
-3.407572 1.135879 0.279581
-3.401390 1.050571 0.283992
-3.351386 0.945910 0.000000
-3.288391 0.450146 0.329653
-3.290957 0.443376 0.473815
-3.243511 0.239534 0.560488
-3.253109 0.276097 0.418538
-3.376059 0.872984 0.321929
-3.329402 0.631352 0.401749
-3.303565 0.674793 0.246650
-3.109807 -0.223906 0.608122
-3.071223 -0.187762 0.777876
-3.084919 -0.390309 0.628015
-2.928197 -1.587311 0.689987
-2.923164 -1.794137 0.700590
-2.909974 -1.596012 0.750023
-3.076754 -1.621466 0.655893
-3.034057 -1.784302 0.651193
-2.997726 -1.790736 0.646590
-2.994195 -1.600938 0.650053
-3.152656 -1.844654 0.740233
-3.122576 -1.805504 0.673298
-3.120676 -1.616526 0.660025
-3.137865 -1.829848 0.814950
-3.158524 -1.635377 0.731687
-3.093039 -1.824915 0.833571
-3.016968 -1.622163 0.810737
-2.952777 -1.620325 0.801867
-3.000552 -1.797507 0.790752
-2.945968 -1.907405 0.647447
-2.898936 -1.885191 0.692946
-3.020392 -1.964096 0.622069
-3.089148 -1.986586 0.650861
-3.117995 -2.089298 0.645598
-3.022368 -2.065590 0.864234
-3.058952 -2.105744 0.823606
-3.066895 -2.070485 0.845636
-2.985692 -2.054139 0.870523
-3.028159 -1.946126 0.872530
-2.916431 -2.035464 0.847459
-3.145586 -2.103829 0.727740
-3.148298 -2.006915 0.746652
-3.063502 -2.134622 0.748050
-3.134969 -2.091374 0.858857
-3.043019 -1.799713 0.800794
-2.974539 -1.922005 0.836643
-2.933298 -1.781889 0.798941
-2.905071 -1.782034 0.740465
-2.851536 -1.915501 0.755534
-2.882038 -1.911242 0.833158
-2.767751 -1.036445 0.705913
-2.688877 -0.979930 0.574175
-2.810103 -1.158300 0.672636
-2.940851 -0.767443 0.835647
-2.879227 -0.632704 0.868332
-2.682442 -0.594566 0.911825
-2.858062 -0.810561 0.864663
0.895514 -1.208059 0.515303
0.744199 -1.247699 0.489349
0.877643 -1.316715 0.530588
-2.355807 -0.449478 0.800228
-2.361398 -0.519590 0.736304
-2.481032 -0.663995 0.740254
-2.560626 -0.591846 0.893993
-2.914654 1.455529 0.721050
-3.105501 1.433238 0.654128
-3.151967 1.560784 0.528258
-2.958101 1.605526 0.600907
-2.729344 0.538613 0.947804
-2.926695 0.507840 0.892331
-2.732117 0.695118 0.937785
-2.623890 0.150856 1.026158
-2.821317 0.071297 0.981669
-2.870701 0.360552 0.931427
-2.652752 0.394825 0.988570
-3.203963 0.072922 0.571782
-3.114931 0.011031 0.753856
-3.338969 0.898573 0.534501
-3.278954 0.646679 0.648848
-3.429939 1.310855 0.207178
-3.427135 1.459496 0.332007
-3.416909 1.370633 0.384091
-3.436220 1.422009 0.000000
-3.455492 1.553507 0.226123
-2.969959 0.064267 0.890400
-2.966236 -0.175750 0.873296
-3.127554 0.626870 0.756512
-3.382639 1.113642 0.471243
-3.394335 1.248266 0.439445
-3.257283 1.322460 0.539847
-3.231179 1.182811 0.584404
-3.290597 1.626889 0.242920
-2.816783 -0.138526 0.983584
-3.182905 0.924231 0.678669
-3.042943 0.946942 0.755205
-2.978714 0.686359 0.830967
-3.285449 1.445211 0.468319
-3.296304 1.548973 0.392710
-3.195353 1.658372 0.424951
-2.605138 -0.344346 0.966058
-2.456267 -0.293876 0.960933
-2.489389 0.566534 1.008578
-2.458458 0.395929 1.050386
-2.651152 1.302713 0.850630
-2.839111 1.181348 0.862419
-2.976025 1.706744 0.433035
-2.674376 1.674021 0.463161
-2.676085 1.543833 0.670990
-2.641937 1.795317 0.051450
-2.350207 -0.379368 0.864150
-2.338174 -0.192390 0.971305
-2.444180 0.252995 1.068854
-2.176127 0.350404 1.081486
-2.270222 0.048415 1.077679
-2.525544 0.764230 0.975587
-2.247832 0.628271 0.975081
-2.284132 1.374716 0.828546
-2.665077 1.734290 0.302665
-2.231838 1.678939 0.331785
-2.258357 1.579229 0.616870
-2.159888 -0.334865 0.788117
-2.152274 -0.066911 0.978666
-2.165020 -0.242749 0.853449
-2.180432 0.495159 1.022688
-2.142707 0.651585 0.945759
-2.075115 0.514467 0.999310
-2.353279 1.150119 0.897088
-2.123526 1.399128 0.815095
-2.111477 1.204681 0.875686
-2.203228 1.707128 0.175601
-2.187472 1.728430 0.105995
-1.884337 1.706407 0.093069
-1.907753 1.674940 0.189656
-1.672769 -0.610782 0.852499
-1.710303 -0.656358 0.684984
-1.940798 -0.388112 0.824081
-2.152090 -0.361067 0.738588
-1.959741 -0.445748 0.722625
-2.088620 0.124924 1.054798
-2.047899 0.365006 1.046196
-1.969569 0.361625 1.050302
-1.975490 0.119600 1.073397
-2.149624 0.755487 0.911350
-2.136962 0.957024 0.887658
-1.922514 1.166243 0.905016
-1.978983 0.839379 0.926410
-1.806458 1.536739 0.752475
-1.913406 1.401710 0.852790
-1.930963 1.664898 0.332294
-1.680383 1.619957 0.405414
-1.717020 1.603994 0.553144
-1.668701 -0.527916 1.002726
-2.002300 -0.078293 0.992615
-1.663454 -0.199191 1.189790
-1.648655 -0.390732 1.111926
-1.671252 0.775566 1.035763
-1.970358 0.682534 0.952622
-1.708671 1.006292 0.948961
-1.784022 1.200552 0.881691
-1.619785 1.572121 0.555684
-1.669850 1.510328 0.691561
-1.640819 1.691524 0.102568
-1.629329 1.720172 0.000000
-1.497976 1.704577 0.000000
-1.525621 1.681941 0.102256
-1.324682 -0.848171 0.688768
-1.324138 -0.767466 0.895180
-0.997519 -0.809151 0.894483
-1.004426 -0.901822 0.705141
-1.419646 -0.330136 1.250977
-1.401430 0.073617 1.294723
-1.003188 -0.110012 1.303272
-0.981370 -0.363976 1.260529
-1.473809 0.954901 0.960703
-1.514292 1.085784 0.845191
-1.336815 1.026330 0.877999
-1.170855 0.671618 1.123983
-1.449045 1.402568 0.627827
-1.111292 1.357091 0.582968
-1.292025 1.258362 0.641705
-1.325954 1.620999 0.224463
-1.279409 1.647893 0.116363
-1.021645 1.593224 0.207939
-0.666615 -1.019103 0.426601
-0.654616 -0.957195 0.612972
-0.219309 -0.832093 0.515049
-0.649614 -0.695776 0.947827
-0.626350 -0.540157 1.068701
-0.177175 -0.531953 0.840220
-0.578383 -0.301244 1.157840
-0.586476 -0.048761 1.207438
-0.175604 0.036553 1.044235
-0.172707 -0.148875 1.019777
-0.181522 0.449579 1.011887
-0.590267 0.461266 1.127752
-0.181444 0.607161 0.960933
-0.905621 1.105906 0.743849
-0.741997 1.336041 0.536258
-0.408009 1.204711 0.628111
-0.352192 0.937556 0.832070
-0.784474 1.534909 0.298081
-0.373106 1.482285 0.329420
-0.732041 1.463020 0.417094
0.542099 1.636357 0.221205
0.525768 1.673041 0.170353
0.608633 1.054765 0.757652
-0.011799 1.259066 0.536614
0.567606 1.358132 0.567661
0.617450 0.926657 0.818221
0.111213 0.914843 0.765482
0.062197 1.090518 0.669502
0.680231 0.190733 0.970309
0.128480 0.258549 0.976468
0.133352 0.368758 0.962235
0.677312 0.350869 0.954430
0.457372 -0.096485 0.847382
0.141093 0.100045 0.952232
0.691307 0.021907 0.989038
0.339363 -0.597231 0.630436
0.118373 -0.595837 0.636692
0.138133 -0.483986 0.705530
0.347758 -0.495430 0.685216
0.342626 -0.837999 0.332842
0.393205 -0.848677 0.000000
0.104837 -0.812453 0.321371
0.661793 -0.180695 0.955043
0.500007 -0.419788 0.868570
0.664926 -0.321114 0.925698
0.582091 -0.419165 0.908164
0.430302 -0.388403 0.782311
0.365253 -0.375464 0.767251
0.974403 -0.875778 0.425765
0.909256 -0.881032 0.469449
0.836111 -0.369189 0.924503
0.947846 -0.171310 0.912676
0.982056 -0.377312 0.891251
1.058962 -0.396134 0.853051
1.041865 0.192260 0.978988
0.668641 0.507945 0.928363
1.000064 0.552979 0.964740
1.046093 0.293647 0.992400
0.905502 1.201793 0.660145
0.919053 0.970222 0.780105
0.790090 1.681520 0.136061
0.783303 1.649272 0.198662
-1.407436 -0.538663 1.146105
-1.361553 -0.687282 1.036652
-1.727867 0.562551 1.103064
-1.452974 0.660806 1.116047
-1.419722 0.462407 1.189889
-1.574139 1.249116 0.725277
-1.584756 1.604890 0.393744
-1.374115 1.567594 0.415143
-0.649889 -0.774873 0.832943
-0.642775 -0.876574 0.662649
-1.088955 0.473324 1.213581
-0.580654 0.338206 1.166764
-1.005669 0.225360 1.288580
-0.682743 0.687164 1.031183
-1.023240 1.633745 0.142557
-0.764188 1.627747 0.115974
-0.799056 1.582332 0.204197
-0.181823 -0.742969 0.585918
0.112278 -0.656741 0.557880
0.104615 -0.778565 0.441355
-0.188049 -0.672360 0.712255
-0.179043 0.191830 1.049705
0.151977 -0.066345 0.873503
-0.198587 0.320145 1.039172
0.124969 0.627079 0.908371
-0.360365 1.330595 0.482362
-0.412714 1.558348 0.221121
-0.038427 1.468198 0.353740
-0.423199 1.626001 0.123128
0.801097 1.575553 0.309271
1.011439 1.621719 0.250335
0.829814 1.447003 0.484279
1.141237 1.311315 0.508109
1.320855 0.309179 0.896352
1.316918 0.527910 0.867168
0.990627 1.659513 0.162962
1.353701 -0.083778 0.717877
1.251824 -0.259932 0.644282
1.232115 -0.117396 0.798979
1.284164 0.149053 0.872315
1.402771 0.176494 0.746246
1.392867 0.012035 0.751643
1.274390 0.033148 0.866586
1.449887 0.493946 0.777003
1.434927 0.360167 0.784992
1.241085 1.287561 0.457852
1.307397 1.100197 0.538054
1.203528 1.152647 0.581209
1.077660 1.603021 0.261792
1.168323 1.406658 0.418245
1.082907 1.461251 0.396403
1.335057 1.474227 0.323987
1.361744 1.319764 0.392446
1.214076 1.689264 0.155187
1.249220 1.596326 0.261571
1.425774 1.115228 0.445511
1.510401 0.881594 0.471603
1.457938 0.862577 0.551955
1.479010 0.637505 0.650776
1.514399 0.643044 0.546263
1.543139 0.503908 0.550186
1.497815 0.503767 0.682950
1.352989 1.101951 0.496818
1.331326 1.093361 0.516684
1.501408 0.070805 0.505055
1.464587 -0.060398 0.515496
1.466463 0.054081 0.627613
1.499861 0.365708 0.663206
1.411105 -0.084590 0.617002
1.350507 -0.221463 0.574860
1.543124 0.369963 0.549592
1.642098 0.401025 0.492121
1.507375 0.236545 0.550197
1.559088 0.695338 0.503598
1.625905 0.544298 0.498891
2.070711 1.851341 0.243187
1.915145 1.763650 0.225406
1.896677 1.888186 0.113532
2.055989 1.947275 0.138161
2.276227 1.243662 0.397293
2.108268 1.148066 0.374911
2.066107 1.382476 0.348266
2.202117 1.457229 0.366618
2.220302 0.595560 0.235804
2.194634 0.648119 0.277442
2.363643 0.765457 0.238961
1.922881 0.105643 0.211668
2.039711 0.272756 0.196872
2.097950 0.242647 0.143692
1.965571 0.041353 0.154232
1.979267 0.462774 0.316115
1.993636 0.392493 0.272206
1.856347 0.218248 0.291193
1.591864 1.173972 0.378900
1.828473 1.262843 0.354225
1.848756 1.031154 0.383091
1.663945 0.936059 0.394532
1.485713 1.736419 0.128464
1.731329 1.802119 0.130095
1.748189 1.694389 0.227759
1.502887 1.628498 0.226004
2.054533 1.984173 0.078639
1.882697 1.913341 0.055482
1.807898 0.467178 0.413558
1.830755 0.352335 0.350260
1.667499 0.238201 0.398700
2.274657 2.071757 0.185317
2.460671 1.330128 0.413283
2.382195 1.523411 0.386697
2.435493 0.667241 0.151350
2.239950 0.539608 0.184423
1.949998 0.540295 0.356762
2.178126 0.697596 0.300072
1.791858 1.479175 0.291253
1.992434 1.552259 0.306996
1.710448 1.846248 0.026212
0.567277 -0.777018 0.818481
0.586465 -0.922986 0.776865
0.519877 -0.759538 0.748047
0.507330 -0.543374 0.841116
0.409612 -0.534404 0.700762
0.814073 -0.496779 0.920274
0.956395 -0.487165 0.898099
0.965089 -0.873556 0.740833
0.992213 -0.744134 0.770737
1.022937 -0.718718 0.686768
0.983320 -0.859960 0.657957
0.998456 -0.792591 0.501725
0.573183 -0.525971 0.874958
0.552555 -0.646914 0.833602
0.666182 -0.496962 0.899102
0.788274 -0.635600 0.892630
0.632402 -0.630950 0.874322
1.073408 -0.527855 0.746398
1.075369 -0.529992 0.629504
1.058548 -0.590544 0.600495
1.045694 -0.609717 0.720996
0.501493 -0.660709 0.785084
0.911975 -0.604753 0.883744
1.013753 -0.629143 0.808707
0.917735 -0.789396 0.818811
0.974020 -1.234386 0.624065
0.956272 -1.345601 0.621440
0.931270 -1.003255 0.500019
0.738569 -0.950730 0.508696
0.763601 -1.372380 0.494021
0.690526 -1.378248 0.533376
0.750848 -1.537919 0.540354
0.806237 -1.561627 0.515875
0.932948 -1.742172 0.631604
0.916532 -1.754274 0.591728
0.938509 -1.845321 0.584084
0.981527 -1.875631 0.646672
0.723931 -0.882067 0.461077
0.631000 -0.886157 0.477357
0.798278 -1.436387 0.741983
0.865762 -1.412204 0.739099
0.833353 -1.555958 0.716666
0.785149 -1.567249 0.718958
0.892878 -1.011726 0.764045
0.875161 -1.260055 0.766968
0.798722 -1.009827 0.784065
0.720813 -1.050080 0.769128
0.814326 -1.279679 0.764732
0.723027 -1.276845 0.744053
0.846306 -1.757637 0.681889
0.807776 -1.759843 0.691933
0.954020 -1.008532 0.698659
0.947509 -1.235742 0.697855
0.907333 -1.742026 0.690077
0.884437 -1.551049 0.685369
0.588258 -1.257810 0.602403
0.632072 -1.400599 0.603371
0.664329 -1.254639 0.528203
0.561157 -1.049352 0.715715
0.534485 -1.057296 0.612471
0.517587 -0.871856 0.538309
0.610387 -1.063914 0.755136
0.539648 -0.920320 0.730336
0.669629 -0.924725 0.806861
0.715658 -1.404498 0.730986
0.650158 -1.262850 0.737953
0.736501 -1.567502 0.703439
0.762391 -1.785045 0.724708
0.926245 -1.365509 0.684145
0.902178 -1.550045 0.636231
-3.238701 -1.255198 0.713888
-3.190764 -1.430082 0.727962
-3.247724 -1.257174 0.647011
-3.208138 -1.468758 0.663209
-3.216280 -1.250211 0.592802
-3.152541 -1.447340 0.633916
-3.073169 -1.452848 0.628566
-3.086528 -1.301188 0.582703
-3.054119 -1.081386 0.536750
-3.002805 -1.451546 0.635771
-2.984995 -1.316830 0.587083
-2.923440 -1.315658 0.619083
-2.915941 -1.434372 0.677393
-2.878085 -1.305302 0.657494
-2.829904 -1.122581 0.769565
-2.929238 -1.279955 0.814636
-2.900858 -1.107507 0.829964
-2.869276 -1.271001 0.752848
-2.944918 -1.395291 0.792859
-3.143380 -1.253988 0.770078
-3.108366 -1.429646 0.767435
-3.085172 -1.628039 0.784096
-3.028703 -1.409822 0.802441
-3.022322 -1.280269 0.824824
-3.070672 -1.069054 0.833273
-2.982483 -1.094017 0.848746
-2.787230 -0.848899 0.855724
-2.652860 -0.843476 0.756840
0.828305 -1.924226 0.513208
0.815904 -1.744439 0.542332
0.765915 -1.946723 0.541999
0.895835 -1.867535 0.538585
0.848872 -1.750866 0.537728
0.936027 -1.992576 0.550640
0.861251 -2.063032 0.558120
0.739741 -2.049436 0.536737
0.712242 -1.967053 0.637791
0.734164 -1.935838 0.755575
0.734555 -1.979385 0.745123
0.922637 -1.995601 0.738601
0.859787 -2.014269 0.761658
0.869914 -1.882135 0.727785
1.007602 -1.986823 0.725420
0.953852 -1.871380 0.724295
0.789193 -2.094752 0.639189
0.724344 -2.051511 0.749994
0.786114 -2.030623 0.736773
0.793322 -2.065874 0.714747
-1.339123 -1.023255 0.588721
-1.217143 -1.031612 0.588676
-0.713325 -1.064442 0.000000
-0.995765 -1.081126 0.297211
-0.680810 -1.047820 0.293624
-1.010503 -1.050800 0.431887
-1.564825 -0.960006 0.427366
-1.664963 -0.961439 0.437032
-1.648663 -0.937065 0.550715
-1.430339 -0.971634 0.557064
-1.429167 -1.009995 0.524825
-0.918430 -1.005399 0.630738
1.744183 -0.131001 0.250428
1.785845 -0.193306 0.202684
1.698169 -0.206646 0.262427
1.433365 -0.132433 0.512822
1.569842 -0.098751 0.423287
1.425927 -0.252408 0.487969
1.738499 -0.252109 0.200492
1.793957 -0.203192 0.000000
1.753681 -0.268181 0.000000
1.635128 -0.153034 0.330290
1.594454 -0.376843 0.299654
1.481891 -0.299834 0.407887
1.693068 0.019270 0.328584
1.612370 -0.041736 0.399825
1.577425 0.158989 0.442661
1.346700 -0.902664 0.000000
1.204187 -0.908424 0.000000
1.241284 -0.884403 0.298717
1.355149 -0.884449 0.295912
1.651206 -0.529303 0.000000
1.623990 -0.674765 0.000000
1.621593 -0.661445 0.254348
1.648931 -0.512305 0.239032
1.260962 -0.821346 0.378531
1.332207 -0.818389 0.370186
1.553143 -0.625979 0.335757
1.586556 -0.509502 0.308161
1.287588 -0.737117 0.413535
1.518069 -0.506553 0.361308
1.450148 -0.376873 0.426786
1.310162 -0.640610 0.480909
1.328783 -0.551616 0.519388
1.450891 -0.512995 0.416715
1.410844 -0.610452 0.398500
1.181674 -0.655255 0.516176
1.147771 -0.762035 0.434600
1.034182 -0.682893 0.552291
1.331334 -0.489517 0.541263
1.233517 -0.518893 0.583203
1.249480 -0.410819 0.616696
1.336122 -0.395349 0.566411
1.161498 -0.331823 0.675914
1.113163 -0.424410 0.660921
1.208867 -0.578395 0.563151
1.445352 -0.767397 0.366260
1.358259 -0.686753 0.409927
1.128721 -0.807390 0.406950
1.568938 -0.741943 0.271938
1.505001 -0.689832 0.355118
1.123995 -0.877922 0.330253
-1.514231 -0.872400 0.612174
-1.534047 -0.931833 0.526501
-1.026586 -1.034660 0.615240
-1.115420 -1.018513 0.627411
-1.594208 -0.972661 0.370918
-1.656560 -0.980305 0.268729
-0.252453 -0.945460 0.000000
-0.226650 -0.913725 0.307900
0.789163 -1.923468 0.753784
0.821258 -1.906256 0.763671
0.714708 -2.063967 0.618878
0.735589 -1.765634 0.564436
0.708297 -1.804784 0.631372
-2.712538 -0.859830 0.830576
-3.051399 -1.275037 0.820664
-2.898223 -1.403342 0.753953
-2.999266 -0.956590 0.489123
-3.125969 -0.875939 0.492876
-3.184537 -1.064373 0.533925
-3.274358 -1.013733 0.584050
-3.177498 -1.631953 0.693061
-3.166720 -1.051819 0.747324
-3.268229 -1.012462 0.691773
-3.154541 -0.839018 0.705963
0.668457 -1.410465 0.711889
0.620606 -1.405670 0.674818
0.576928 -1.266512 0.679708
0.679717 -1.568222 0.605728
0.889232 -0.909052 0.786555
0.628595 -0.983055 0.524442
0.897084 -1.535491 0.561158
0.978164 -0.995503 0.631833
0.640583 -0.802051 0.842388
1.051271 -0.508935 0.816099
0.785654 -0.786524 0.865023
0.788060 -0.875755 0.834322
0.423392 -0.700097 0.581186
0.658001 -0.403343 0.907681
1.692271 1.854720 0.000000
1.769866 1.586874 0.259567
1.962032 1.675683 0.260599
1.918477 0.727283 0.382564
2.131968 0.877199 0.346640
2.268024 0.475298 0.135442
2.384930 0.700071 0.189480
2.333999 0.989447 0.353521
2.327672 1.843812 0.339336
2.118026 1.752474 0.295954
1.197614 1.720701 0.000000
1.491680 1.790514 0.000000
1.562052 1.391231 0.316662
1.750272 0.640285 0.439829
1.475655 0.184799 0.609434
1.400312 0.894289 0.589564
1.035637 1.705917 0.000000
1.038893 1.680961 0.138087
1.281391 0.741880 0.794598
1.409335 0.678960 0.735928
1.125626 -0.326093 0.762761
1.020907 0.062453 0.964917
1.243413 0.935089 0.701099
-0.029277 1.564829 0.215791
0.132283 -0.153129 0.844862
-0.190274 -0.324931 0.960413
0.125508 -0.349354 0.781170
-1.074399 1.550443 0.339440
-1.052405 1.477053 0.491039
-0.568398 0.163617 1.181892
-0.996066 -0.735823 1.005767
-1.534851 1.645174 0.211437
-1.395793 1.491975 0.582968
-1.782972 1.408428 0.804440
0.521287 1.703987 0.000000
0.558277 1.472358 0.448855
0.955437 0.741482 0.876605
1.107595 -0.397308 0.776826
0.332767 -0.782388 0.441857
0.438222 -0.646040 0.647422
0.318589 -0.683230 0.519886
0.654125 0.657910 0.898030
-0.967714 -0.578219 1.152080
-1.664090 1.656419 0.205012
-1.735611 0.317463 1.157411
-1.878706 1.735400 0.000000
-2.072672 1.574771 0.617691
-1.981664 0.556305 0.989865
-1.960224 -0.254407 0.898987
-1.641524 -0.690583 0.695192
-2.354956 0.924551 0.922166
-2.608670 1.805343 0.000000
-2.170459 1.746446 0.000000
-2.564870 0.975997 0.959172
-2.322808 0.755260 0.948532
-2.419813 0.016247 1.053274
-2.660681 1.769410 0.167597
-2.950181 1.750039 0.278170
-2.759080 0.915026 0.926119
-2.537156 0.838989 0.972553
-3.084896 0.470109 0.806930
-2.985991 -0.428990 0.815793
-2.844741 -0.432090 0.934062
-3.217475 0.457527 0.703397
-3.074869 -0.414187 0.736605
-3.436151 1.371016 0.162196
-3.172396 0.249112 0.729534
-3.079986 1.251789 0.697779
-2.579477 -0.821285 0.678266
-3.172840 -0.801622 0.680262
-3.137474 -0.709587 0.678683
-3.037228 -0.742724 0.738121
-3.063533 -1.963338 0.862648
-3.123717 -2.019255 0.853985
-3.124146 -1.975701 0.864433
-2.804182 -2.010921 0.761220
-2.822796 -2.026685 0.834284
-2.837863 -2.017808 0.708371
-2.901678 -2.032446 0.659501
-3.105065 -0.565833 0.701115
-3.106811 -0.554129 0.601001
-3.551877 1.469470 0.047597
-3.562847 1.469960 0.000000
-3.544517 1.107821 0.076470
-3.319230 1.654389 0.088449
-3.290114 1.640670 0.051099
3.101227 1.827281 0.479787
3.122545 1.783528 0.463451
3.236923 1.802433 0.372828
3.221956 1.770950 0.410719
3.102185 1.936313 0.441277
3.279513 1.870108 0.346210
3.308528 1.838312 0.307559
3.286943 1.889220 0.323473
3.332872 1.824156 0.161789
3.179765 1.475008 0.403164
2.891904 1.746783 0.440594
2.957090 2.069750 0.361547
3.201274 1.283333 0.387004
3.803668 1.457398 0.095666
3.760320 1.448390 0.144581
3.931635 1.399956 -0.000786
3.875457 1.436195 -0.000725
3.880505 1.429630 0.100134
3.794974 1.435728 0.160743
3.973213 1.337765 -0.000841
3.951367 1.143983 0.059012
3.943102 1.121371 0.117262
3.963684 1.165377 0.134546
3.972118 1.187017 0.069188
3.970410 1.222444 0.143315
3.934170 1.192325 0.194714
3.561284 1.129559 0.262522
3.724456 1.028779 0.170471
3.833549 1.018732 -0.000811
3.875848 1.060430 -0.000836
3.679171 0.977759 -0.000686
3.464508 1.032294 0.199294
3.027738 1.009115 0.310842
2.971544 0.916653 -0.000075
2.761202 0.875712 0.000100
2.788487 1.041695 0.351468
2.775588 0.987459 0.300159
2.535011 1.323287 0.417012
2.702765 1.796412 0.438335
2.521239 1.540669 0.409805
2.631596 2.329545 0.202231
2.784174 2.251130 0.269609
2.832800 2.188517 0.276790
2.547413 2.294730 0.203644
2.337722 2.138046 0.178738
2.528883 2.101776 0.390916
2.673427 2.190984 0.807972
2.600052 2.219165 0.951251
2.505222 2.129474 1.112631
2.493617 1.843681 0.703536
2.583553 2.165767 1.054684
2.680428 2.113051 0.801537
2.640136 2.042787 0.729803
2.696621 2.054736 0.708897
2.585207 1.946853 0.681551
2.571481 2.002227 0.964633
2.555785 2.017440 1.047047
2.703415 1.913387 0.413183
2.541561 1.783191 0.443078
2.657310 1.874536 0.591839
3.110863 2.048532 0.367166
2.547397 2.107237 1.101624
-3.167110 1.722654 0.291151
-3.193384 1.691332 0.000000
1.181674 -0.655255 -0.516176
1.586556 -0.509502 -0.308161
1.553143 -0.625979 -0.335757
1.332207 -0.818389 -0.370186
1.648931 -0.512305 -0.239032
1.355149 -0.884449 -0.295912
1.681187 -0.399087 0.000000
-1.026586 -1.034660 -0.615240
-1.672026 -0.964128 -0.345003
-1.656560 -0.980305 -0.268729
-0.226650 -0.913725 -0.307900
-1.343173 -1.037518 -0.382038
1.024492 -1.971051 -0.652358
0.981527 -1.875631 -0.646672
0.953852 -1.871380 -0.724295
1.007602 -1.986823 -0.725420
0.793322 -2.065874 -0.714747
0.826513 -2.025728 -0.755370
0.938509 -1.845321 -0.584084
0.993929 -1.977945 -0.599509
-2.712538 -0.859830 -0.830576
-3.274358 -1.013733 -0.584050
-3.268229 -1.012462 -0.691773
-3.172840 -0.801622 -0.680262
-3.189125 -0.802280 -0.515408
-2.865086 -1.179686 -0.594850
-2.994195 -1.600938 -0.650053
-3.216280 -1.250211 -0.592802
-3.177498 -1.631953 -0.693061
-3.154541 -0.839018 -0.705963
0.650158 -1.262850 -0.737953
0.673942 -1.595009 -0.646706
0.620606 -1.405670 -0.674818
0.679717 -1.568222 -0.605728
0.576928 -1.266512 -0.679708
0.628595 -0.983055 -0.524442
0.889232 -0.909052 -0.786555
0.788060 -0.875755 -0.834322
0.669629 -0.924725 -0.806861
0.916532 -1.754274 -0.591728
0.848872 -1.750866 -0.537728
0.932948 -1.742172 -0.631604
0.974020 -1.234386 -0.624065
0.785654 -0.786524 -0.865023
0.640583 -0.802051 -0.842388
0.658001 -0.403343 -0.907681
1.710448 1.846248 -0.026212
1.791858 1.479175 -0.291253
2.097950 0.242647 -0.143692
2.501384 1.132463 -0.380640
2.118026 1.752474 -0.295954
1.531650 1.514656 -0.270265
1.562052 1.391231 -0.316662
1.361744 1.319764 -0.392446
1.750272 0.640285 -0.439829
1.625905 0.544298 -0.498891
1.922881 0.105643 -0.211668
1.744183 -0.131001 -0.250428
1.965571 0.041353 -0.154232
1.896677 1.888186 -0.113532
1.514399 0.643044 -0.546263
1.559088 0.695338 -0.503598
1.449887 0.493946 -0.777003
1.497815 0.503767 -0.682950
1.331326 1.093361 -0.516684
1.543139 0.503908 -0.550186
1.335057 1.474227 -0.323987
1.241085 1.287561 -0.457852
0.829814 1.447003 -0.484279
-0.352192 0.937556 -0.832070
-0.172707 -0.148875 -1.019777
-1.013697 1.670475 0.000000
-0.769847 1.664454 0.000000
-0.741997 1.336041 -0.536258
-1.336815 1.026330 -0.877999
-1.525621 1.681941 -0.102256
-1.279409 1.647893 -0.116363
-1.257961 1.680080 0.000000
-1.324138 -0.767466 -0.895180
0.542099 1.636357 -0.221205
0.955437 0.741482 -0.876605
0.691307 0.021907 -0.989038
0.430302 -0.388403 -0.782311
0.138133 -0.483986 -0.705530
0.617450 0.926657 -0.818221
-0.360365 1.330595 -0.482362
-0.190274 -0.324931 -0.960413
-1.981664 0.556305 -0.989865
-1.512561 -0.779354 -0.678239
-2.322808 0.755260 -0.948532
-2.660681 1.769410 -0.167597
-2.564870 0.975997 -0.959172
-2.537156 0.838989 -0.972553
-2.525544 0.764230 -0.975587
-2.951988 1.769273 -0.166503
-2.950181 1.750039 -0.278170
-3.105501 1.433238 -0.654128
-3.015221 0.321571 -0.853035
-3.007554 -0.628829 -0.766777
-3.037228 -0.742724 -0.738121
-3.217475 0.457527 -0.703397
-3.084896 0.470109 -0.806930
-3.074869 -0.414187 -0.736605
-2.985991 -0.428990 -0.815793
-3.407572 1.135879 -0.279581
-3.290957 0.443376 -0.473815
-2.598711 -0.055698 -1.029597
-2.732117 0.695118 -0.937785
-3.137474 -0.709587 -0.678683
-3.058952 -2.105744 -0.823606
-3.089148 -1.986586 -0.650861
-3.022368 -2.065590 -0.864234
-2.984084 -2.102902 -0.666982
-3.020392 -1.964096 -0.622069
-3.034057 -1.784302 -0.651193
-2.851536 -1.915501 -0.755534
-3.105065 -0.565833 -0.701115
-3.106811 -0.554129 -0.601001
-3.149822 -0.710093 -0.555032
-3.288391 0.450146 -0.329653
-3.243511 0.239534 -0.560488
-3.253109 0.276097 -0.418538
-3.540518 0.191376 -0.014680
-3.513861 0.720491 -0.070497
-3.234051 1.809411 -0.094393
-3.506699 1.111712 -0.088310
-3.425289 0.187699 -0.039446
-3.394351 0.186712 0.052887
-3.383083 0.186352 0.019080
-3.509556 0.190389 0.077708
-3.467373 0.189042 0.086734
3.214886 1.862471 -0.408632
3.221956 1.770950 -0.410719
3.193116 1.745948 -0.440734
3.102185 1.936313 -0.441277
3.137834 1.989994 -0.415852
3.144751 1.940442 -0.413598
3.038117 1.777791 -0.476181
3.282071 1.908852 -0.236941
3.309816 1.832927 -0.251855
3.308528 1.838312 -0.307559
3.179765 1.475008 -0.403164
3.003387 1.762739 -0.462698
2.891904 1.746783 -0.440594
2.955880 2.150746 -0.107329
3.525236 1.690636 -0.000338
2.960897 1.320637 -0.476475
2.765438 1.692489 -0.457043
3.669282 1.483993 -0.146232
3.602862 1.187270 -0.278966
3.880505 1.429630 -0.100134
3.973527 1.280031 -0.000859
3.945630 1.202497 -0.000856
3.972118 1.187017 -0.069188
3.934170 1.192325 -0.194714
3.693748 1.174577 -0.296436
3.645413 1.086825 -0.261401
3.603644 1.057109 -0.242244
3.508852 0.987965 -0.105956
3.027738 1.009115 -0.310842
2.788487 1.041695 -0.351468
2.775588 0.987459 -0.300159
2.535011 1.323287 -0.417012
3.371470 1.816159 -0.000164
2.721186 2.300023 -0.263420
2.873980 2.226135 0.000399
2.546770 2.297442 -0.231634
2.387036 1.982464 -0.462346
2.414988 2.039524 -0.471610
2.395868 2.052989 -0.392548
2.462380 2.025376 -0.544466
2.678597 2.105866 -0.583820
2.544050 2.148816 -0.949826
2.427696 1.967658 -0.528181
2.461376 1.959025 -0.586052
2.410062 1.846906 -0.370407
2.515348 1.761115 -0.360084
2.547397 2.107237 -1.101624
2.620864 2.170294 -0.956460
2.586800 1.932974 -0.612542
2.571481 2.002227 -0.964633
2.758330 1.769732 -0.456336
2.657310 1.874536 -0.591839
3.286943 1.889220 -0.323473
3.279513 1.870108 -0.346210
2.583514 1.684102 -0.439501
2.370315 2.091757 -0.282625
-2.748165 -1.041409 -0.545953
2.252206 2.131037 0.000000
2.576789 2.094698 -1.047269
2.622151 2.101362 -0.899692
2.493617 1.843681 -0.703536
2.559378 2.303478 -0.294525
2.784174 2.251130 -0.269609
2.779104 1.609425 -0.472320
3.031453 1.276171 -0.454146
3.887636 1.047627 -0.080707
3.808900 1.041102 -0.157105
3.821278 1.316347 -0.236357
3.943102 1.121371 -0.117262
3.951367 1.143983 -0.059012
3.521284 1.516517 -0.188980
3.414083 1.440929 -0.278047
3.401582 1.589670 -0.214323
-3.551816 0.191737 0.019121
-3.540464 0.191375 0.052992
-3.425205 0.187696 0.077648
-3.394404 0.186714 -0.014714
-3.427871 1.705565 -0.051046
-3.518641 0.451173 -0.037250
-3.438518 1.710582 0.000000
-3.084919 -0.390309 -0.628015
-2.997726 -1.790736 -0.646590
-2.804182 -2.010921 -0.761220
-2.882038 -1.911242 -0.833158
-2.822796 -2.026685 -0.834284
-2.579477 -0.821285 -0.678266
-2.926695 0.507840 -0.892331
-2.844741 -0.432090 -0.934062
-3.172396 0.249112 -0.729534
-2.787230 -0.848899 -0.855724
-2.354956 0.924551 -0.922166
-1.641524 -0.690583 -0.695192
-1.640819 1.691524 -0.102568
-1.419646 -0.330136 -1.250977
1.434927 0.360167 -0.784992
1.307397 1.100197 -0.538054
2.263949 0.478786 0.000000
1.960247 0.048185 0.000000
2.075774 0.227483 0.000000
0.750848 -1.537919 -0.540354
0.907333 -1.742026 -0.690077
-3.125969 -0.875939 -0.492876
0.765915 -1.946723 -0.541999
-1.663630 -0.984419 0.000000
1.241284 -0.884403 -0.298717
1.621593 -0.661445 -0.254348
1.260962 -0.821346 -0.378531
-2.943065 -1.160077 0.551146
-2.898867 -1.011581 0.502242
-1.672026 -0.964128 0.345003
2.260425 2.104242 0.114937
2.521752 0.947985 0.307021
2.570546 1.906884 0.706137
2.444256 2.082978 0.411832
2.559378 2.303478 0.294525
2.537156 2.259356 0.347603
3.653970 1.037697 0.189034
3.757179 1.144106 0.272587
3.821278 1.316347 0.236357
-3.210879 0.099346 0.514017
-3.335369 0.977696 0.220991
-3.318808 0.875948 0.214961
-3.149822 -0.710093 0.555032
-2.984084 -2.102902 0.666982
-2.748165 -1.041409 0.545953
-2.865086 -1.179686 0.594850
-2.598711 -0.055698 1.029597
-3.007554 -0.628829 0.766777
-3.015221 0.321571 0.853035
-1.512561 -0.779354 0.678239
0.552294 1.576104 0.307247
0.116163 0.485553 0.944503
1.202578 -0.234923 0.776183
1.374406 0.901839 0.636086
2.155821 1.639038 0.315585
2.354076 0.844978 0.296592
1.531650 1.514656 0.270265
-3.189125 -0.802280 0.515408
0.993929 -1.977945 0.599509
0.826513 -2.025728 0.755370
1.024492 -1.971051 0.652358
1.672930 -0.385424 0.218112
1.489864 -0.828623 0.277580
-3.165962 1.700762 0.054551
3.186107 1.880273 0.448643
3.931589 1.153267 -0.000859
-2.550033 -1.304980 -0.348205
-2.519599 -1.296217 -0.381404
-2.588608 -1.331407 -0.391146
-2.653970 -1.273505 -0.421654
-2.658972 -1.289162 -0.389175
-2.530408 -1.277366 -0.421860
-2.237101 -1.285914 -0.355796
-2.221505 -1.301479 -0.311647
-2.163787 -1.322583 -0.345344
-2.081642 -1.262544 -0.332368
-2.109662 -1.262490 -0.378652
-2.626019 -1.270120 -0.434517
-2.617938 -1.198400 -0.440915
-2.646586 -1.201869 -0.427728
-2.608463 -1.302437 -0.334148
-2.599937 -1.231537 -0.338021
-2.540036 -1.234141 -0.352433
-2.157989 -1.253697 -0.413791
-2.104331 -1.190586 -0.383645
-2.153875 -1.181563 -0.419668
-2.176786 -1.291437 -0.282438
-2.218992 -1.230556 -0.314955
-2.173147 -1.220261 -0.285011
-2.638160 -1.224037 -0.361087
-2.650784 -1.112646 -0.342697
-2.596881 -1.123209 -0.310171
-2.563897 -1.192440 -0.449049
-2.546065 -1.068073 -0.466737
-2.622266 -1.076491 -0.455267
-2.109907 -1.214011 -0.305063
-2.174549 -1.107315 -0.235418
-2.085372 -1.098498 -0.263695
-2.207725 -1.210617 -0.391239
-2.147364 -1.052746 -0.425305
-2.223297 -1.093719 -0.385215
-3.326805 0.839245 0.000000
-3.164728 -0.406358 -0.586915
-3.313883 -0.418393 -0.517221
-3.269823 -0.568361 -0.530285
-3.295997 0.092776 -0.429598
-3.329103 -0.224689 -0.497464
-3.375974 -0.550889 -0.387295
-3.301466 -0.683107 -0.435274
-3.402470 -0.226290 -0.341853
-3.404071 -0.403072 -0.355960
-3.364829 0.067627 -0.259283
-3.329295 0.289980 -0.264157
-3.339651 0.295972 0.000000
-3.380923 0.063110 0.000000
-3.231133 -0.800817 -0.311283
-3.319819 -0.679652 -0.289569
-3.292427 -0.710813 0.000000
-3.212442 -0.808707 0.000000
-3.410766 -0.222842 -0.253333
-3.408475 -0.216115 0.000000
-3.302623 0.482629 -0.259273
-3.349004 0.070678 -0.326661
-2.197675 -1.073129 0.000000
-1.973169 -1.006885 0.000000
-2.261735 -1.099326 -0.341467
-2.369748 -1.099617 -0.360467
-2.239184 -1.121831 -0.277644
-2.669895 -1.104021 -0.389719
-2.847859 -1.033152 -0.339010
-2.809889 -1.028295 0.000000
-2.484050 -1.086963 -0.436970
-2.468415 -1.114217 -0.378486
-2.331058 -1.007468 -0.507170
-2.037000 -1.065545 -0.307598
-1.945762 -1.015962 -0.311443
-1.933307 -0.941370 -0.464454
-2.077498 -1.065469 -0.374507
-2.516298 -0.981447 -0.552800
-2.446516 -0.853686 -0.679608
-1.865876 -0.846961 -0.603743
-1.957160 -0.851434 -0.594760
-1.821341 -0.884464 -0.463892
-1.827783 -0.975043 0.000000
-1.801870 -0.963362 -0.274338
-1.728349 -0.932936 -0.464682
-1.758315 -0.930776 -0.384331
-1.886229 -0.747412 -0.665936
-1.956164 -0.792361 -0.647899
-1.903724 -0.646937 -0.687425
-1.814087 -0.742962 -0.642274
